# .PCD v.7 - Point Cloud Data file format
VERSION .7
FIELDS x y z
SIZE 4 4 4
TYPE F F F
COUNT 1 1 1
WIDTH 1838
HEIGHT 1
VIEWPOINT 0 0 0 1 0 0 0
POINTS 1838
DATA ascii
-16.7767 21.2882 30.9194
-16.655 18.7243 29.2745
-16.6168 24.6646 33.4933
-16.6255 20.0798 33.2747
-16.459 21.6363 36.4104
-16.644 25.4182 30.4057
-16.4076 18.3696 34.317
-16.3925 27.5198 33.6718
-16.2107 25.6892 37.4001
-16.185 23.242 38.5204
-16.0758 14.8247 29.0296
-16.088 29.7797 33.2936
-16.0327 15.6341 32.7128
-15.96 28.4288 37.0692
-15.6236 21.1682 41.2784
-15.7277 17.1286 37.5218
-15.6296 19.0353 40.068
-15.5154 23.2863 42.1601
-15.5692 30.4343 37.5047
-15.3074 25.1749 42.8001
-15.4997 28.6722 39.7854
-15.391 14.8895 35.8753
-15.4762 31.7038 35.5901
-15.3945 12.946 30.1554
-15.1863 -25.0996 30.7767
-15.2181 -24.1365 31.7784
-15.2033 32.9796 32.1244
-15.0239 -25.7401 34.8444
-14.7709 30.8865 41.2948
-14.7322 33.9548 35.0883
-14.8183 32.9201 37.7983
-14.8833 -20.1388 32.2642
-15.0471 -26.8827 32.5693
-15.079 -8.64947 42.712
-14.4926 27.3448 44.7834
-15.0833 -23.0223 28.191
-14.938 -3.68613 46.9533
-14.9145 -17.6487 27.1898
-14.7057 14.9484 40.2756
-14.9587 -5.5492 47.4477
-14.9046 -12.113 44.0941
-14.9986 -11.3172 41.3055
-14.6903 17.5515 43.6918
-14.668 -27.8211 29.0788
-14.7579 -16.2036 27.8781
-14.7457 -28.3372 35.1886
-14.7786 -19.0983 24.3709
-14.7856 -9.23164 39.2507
-14.6827 -28.6247 31.6412
-14.9215 -5.40713 43.3892
-14.2021 21.4974 47.1865
-14.7608 -21.7218 24.5056
-14.7344 -5.31635 49.3929
-13.7702 10.9203 36.4799
-14.7306 -0.911373 49.4438
-14.4778 -28.0955 37.6241
-14.5965 -15.9423 40.9742
-14.4796 -21.2661 35.567
-14.2996 19.4376 46.6379
-14.7409 -2.41176 45.5782
-14.5399 -11.3343 36.8913
-14.5485 -16.4711 30.3539
-14.5982 -15.2988 43.02
-14.516 -4.52441 40.8466
-14.5773 -1.0396 50.8542
-14.7445 -25.8291 26.9479
-14.5374 -15.5254 38.3107
-14.5446 -25.9805 37.3923
-14.4357 -14.2478 25.4347
-14.2162 6.16443 49.8345
-14.3727 -8.13478 37.0536
-14.4272 -15.2654 44.7639
-14.2803 -14.5362 28.1018
-14.3854 -5.87001 50.9166
-13.7843 33.5887 41.4508
-14.28 -1.95864 42.7068
-14.3118 3.37726 47.3483
-14.2364 16.6779 46.4876
-14.2809 14.9241 44.0728
-14.3173 -18.3958 35.8713
-14.2829 -18.268 34.1638
-14.2107 -11.2394 33.1559
-14.2653 -20.7858 37.7083
-14.0575 -22.0236 38.9683
-14.0105 -14.5299 30.0416
-14.3666 -27.6044 26.5052
-13.9764 35.6142 33.6307
-14.2459 -1.08984 52.5336
-13.7406 -32.3807 33.9092
-13.8829 12.1353 41.6453
-13.9047 3.20893 44.0557
-13.7666 -24.0887 40.1416
-14.0143 -14.7992 31.6351
-13.9579 -30.5026 38.1083
-13.7257 22.6914 48.7833
-13.8752 -2.69697 39.5861
-13.9959 8.35044 52.2453
-14.0163 7.3803 47.0012
-14.0973 13.422 45.6906
-13.9479 -4.78187 37.5312
-13.6658 9.10934 29.0281
-14.0369 -67.8632 46.1799
-13.9323 -69.6616 48.5369
-13.7812 11.5935 39.7636
-13.9953 11.2303 46.113
-13.7701 -29.1102 25.5992
-13.5794 31.04 44.7621
-14.0055 13.2919 49.7983
-13.8118 -16.6036 46.3914
-13.8654 -68.3487 46.6185
-13.6079 -70.4319 48.9703
-13.3084 36.5015 37.2336
-13.7344 -32.4103 30.8133
-13.7877 -18.5864 44.7794
-13.5428 7.63035 54.6151
-13.7573 16.8791 50.8752
-13.8606 -4.22311 53.3731
-13.6419 -66.4977 43.4702
-13.6565 -13.0495 29.7908
-13.5571 -32.1005 28.1841
-13.5815 -9.34832 31.4218
-13.7779 -66.074 42.8399
-13.5775 -22.1835 42.1243
-13.3123 24.7698 49.3152
-13.6651 9.87656 42.6482
-13.5585 -64.6069 43.2989
-13.3428 -0.869752 38.8906
-13.7216 0.197866 54.3815
-13.4837 5.92267 42.6828
-13.6981 -66.6379 45.7
-12.9873 -33.7964 38.9037
-13.5108 12.0449 54.1121
-13.9514 -28.0007 39.8663
-13.1905 1.65388 39.694
-13.3647 -65.2434 40.4151
-13.2556 -4.64704 34.6288
-13.4062 -66.9416 46.4066
-13.1258 -70.3785 49.1268
-12.9954 28.3017 48.2302
-13.1452 36.934 33.2891
-12.9573 -25.6884 42.7389
-13.2135 17.7392 53.2732
-13.1986 -31.8249 40.7521
-13.0984 -29.8566 24.1317
-13.0655 9.52801 35.9524
-13.8842 -12.7808 48.5294
-13.0797 -36.4355 32.588
-13.1073 -67.1909 45.5765
-12.8747 -63.2593 42.9919
-13.0001 -11.2867 28.1013
-12.677 -2.81601 34.8221
-13.5925 -7.90536 52.6269
-13.2852 -66.1711 43.7465
-13.015 -36.0326 30.002
-13.1603 9.52361 38.4858
-12.5473 -65.4278 39.6637
-13.0097 -62.9928 41.3089
-12.4871 -64.8318 39.1112
-12.9252 -5.73534 55.2983
-12.94 7.55361 39.0007
-12.9069 -65.5778 42.3039
-13.221 -30.0992 41.7675
-13.1796 -1.96854 55.6701
-12.4903 36.1454 41.5862
-12.5491 5.01673 38.5032
-12.4248 -37.1953 28.1578
-12.8967 4.83283 56.5845
-12.6615 -5.28402 32.0188
-12.265 -71.4768 49.3261
-12.6763 -62.3627 39.624
-12.7146 -63.8411 39.3522
-11.7895 -69.3858 47.4997
-12.6764 14.8046 56.0604
-12.61 -33.4977 25.388
-11.7795 6.75599 30.6034
-12.842 9.93414 56.5089
-12.6353 -37.757 35.1753
-12.5659 -60.8021 39.3263
-12.5978 -9.39626 28.3646
-12.2969 -11.3334 53.8137
-12.4705 -38.6819 33.0629
-12.0847 -9.49041 26.1963
-12.4663 -32.665 42.6752
-12.295 24.8854 52.2269
-12.3527 -38.8028 31.2731
-12.1604 -37.8934 38.4418
-12.2993 -8.71373 55.2943
-11.8654 -65.7653 43.9527
-12.506 -59.6538 37.6162
-12.3315 19.4128 55.3496
-12.399 33.9103 44.8705
-11.2964 5.67253 31.754
-12.4749 -60.8789 41.3587
-12.7107 -23.6119 44.4715
-12.384 -63.0056 36.0547
-12.3953 -61.4505 34.4953
-11.7675 -63.7619 44.5337
-12.4558 -3.26448 56.8582
-12.0087 38.6516 36.3934
-11.8926 -36.7895 25.9568
-12.2176 -7.07786 29.472
-12.1022 -59.1618 39.3093
-12.047 7.03358 34.9487
-12.7316 -18.7947 48.1718
-11.6911 -1.3431 32.9568
-11.6156 37.6257 41.4351
-11.8206 38.8041 33.8626
-12.2652 1.09077 57.8214
-12.3911 -65.3844 40.4937
-11.8829 -20.0009 49.5434
-12.1042 -59.1305 34.1488
-11.8677 -60.6101 42.2513
-10.973 1.60208 32.114
-11.9905 -31.7581 43.9645
-11.4697 -66.3482 44.7068
-11.9089 -28.025 44.6428
-12.1978 11.0855 57.7342
-12.2413 -64.3249 38.1145
-12.0042 -64.0168 34.7227
-11.7284 3.01644 35.3118
-12.1135 5.28277 58.2132
-11.8513 29.1515 50.2359
-11.7554 -65.1363 37.8573
-12.059 -62.6216 33.4906
-11.5022 -34.7772 23.5342
-11.6829 -26.116 45.9365
-11.5849 6.40589 28.0105
-11.7266 21.6651 55.6146
-11.5234 -65.5221 36.4187
-10.6483 -71.6547 48.4833
-11.441 -65.2533 38.4255
-11.0772 -7.22531 26.8734
-11.8162 -62.4945 32.039
-11.2099 -57.8148 39.928
-11.2842 -55.3551 35.2508
-11.8188 -64.6637 32.5513
-11.2481 -68.4226 47.8779
-11.672 -60.4426 31.8723
-11.0438 -70.9017 48.4058
-11.4253 -6.43213 57.6335
-11.6325 -65.7491 35.5609
-11.0426 -42.4482 36.5351
-11.6768 -4.56215 30.1551
-11.3553 17.3096 58.0919
-11.3349 -41.5318 33.0265
-11.0513 -40.5942 29.0621
-11.6039 -66.908 33.3058
-11.2426 -55.663 36.774
-10.7857 3.89174 31.6198
-11.1941 -2.91692 30.7578
-11.5647 -2.90374 58.3299
-11.4097 -34.0582 44.2117
-11.2851 36.2719 44.6223
-11.3625 -55.9798 33.3042
-11.0039 -27.8645 46.4518
-11.3671 -12.2289 55.1965
-10.1822 -64.0254 41.0693
-11.1337 20.1048 57.466
-10.7013 -34.1288 21.7675
-11.0559 -6.26947 27.8664
-11.3975 -38.697 41.2167
-11.1683 -62.311 30.1341
-11.3493 25.6555 53.9124
-11.04 -22.7283 49.7062
-11.3246 -65.4359 30.8185
-10.9552 -68.7012 32.4616
-11.1908 -56.7432 31.8119
-11.3019 2.36292 59.4187
-10.0088 -67.4705 45.3118
-11.2889 13.7455 58.8443
-11.0118 -68.313 34.6555
-10.9329 31.8734 49.8793
-10.6071 -39.7367 26.5764
-10.8895 -65.6982 37.619
-11.1198 39.6832 35.6442
-10.6048 -60.7719 43.2794
-9.96057 -55.8271 39.5983
-11.1565 6.92945 59.6795
-10.7946 -9.5738 57.3314
-10.6306 -39.1928 42.9408
-10.5844 -55.23 38.0804
-11.0221 -42.8716 33.4375
-10.7774 -63.7601 39.59
-10.9928 -52.4176 32.7128
-11.1773 -54.2887 34.3795
-10.7939 -33.5389 45.3528
-10.8452 -54.2548 36.5679
-10.5047 -58.0956 29.6416
-10.5958 -29.9763 46.3464
-10.8974 -51.4962 35.3157
-10.8255 -45.9083 34.1079
-10.6772 -64.8122 38.2351
-10.6703 4.7198 30.1749
-10.7098 -65.091 45.7308
-10.7849 -44.3217 35.6416
-10.8817 5.60014 28.5429
-10.8001 -47.7456 32.2714
-10.3507 -68.5123 29.9366
-10.7978 -43.9723 32.1283
-9.82677 -71.5694 47.7535
-10.0914 -36.0443 22.1767
-10.6909 -70.0017 48.3744
-9.8658 -57.6178 41.5446
-10.1861 -50.5819 29.9347
-10.6232 -1.91738 59.7133
-10.732 23.8522 56.214
-10.6006 -42.0527 28.7632
-10.5678 -64.2765 28.9389
-10.5713 -42.5586 39.1132
-10.5668 -13.9403 55.6696
-10.4887 -49.2076 30.7475
-10.2288 -38.2997 24.3245
-10.4042 -47.5465 36.6292
-10.5394 -44.1882 30.2985
-9.37907 -62.7752 39.149
-10.1779 -42.6099 40.2705
-9.99194 29.0168 54.0055
-10.3036 -3.84831 28.2641
-10.2161 -45.6359 29.398
-9.64505 -70.5451 30.588
-9.75409 36.2479 47.8719
-10.4965 -45.3944 36.6067
-10.1453 -49.2275 37.4366
-10.5149 -66.8109 37.6768
-9.82585 -62.6898 44.4727
-9.80795 -60.5526 27.845
-10.0374 39.3259 42.074
-9.55763 -39.4555 44.4669
-10.3008 2.52188 60.6564
-9.89644 -45.6161 38.357
-9.90791 -53.3965 38.3544
-9.90272 -28.7874 47.9392
-9.20618 -58.5935 42.8653
-9.22142 -65.8007 43.3139
-10.1214 -68.476 37.6375
-9.77235 -65.4324 39.1214
-10.0631 40.5568 34.7082
-10.4302 -0.415954 30.3005
-10.1852 5.99745 60.85
-9.11364 -62.8639 38.5287
-9.96014 2.47394 29.6228
-10.1647 13.8823 60.1413
-10.1607 9.76259 60.6239
-9.29816 -20.4893 53.6998
-9.94751 -6.55926 59.3405
-9.47505 -70.5648 35.1694
-8.65638 -64.0209 41.0355
-9.69229 -24.7473 50.8278
-9.80064 -64.1061 38.4338
-10.0805 17.7612 59.453
-9.89083 4.50419 28.636
-9.97256 -43.5048 27.7883
-9.84844 -41.3726 42.5594
-9.414 21.5795 58.914
-9.30932 -5.37781 25.9222
-9.76683 3.09487 29.8128
-9.4486 -54.5611 27.8179
-9.93972 24.727 56.8736
-8.99231 -69.009 27.8627
-9.32857 -35.4318 46.3704
-8.81181 -55.7751 40.9726
-9.59346 -45.4023 27.7522
-9.28412 40.6217 39.6969
-9.52553 -65.1237 27.481
-9.36577 -42.3608 25.7351
-9.40591 -53.9743 39.2407
-9.30474 -31.5195 47.4594
-9.25218 -49.0116 39.0034
-9.56473 -14.3739 56.8056
-8.9676 39.7548 44.4625
-8.73784 -65.2794 45.4773
-9.55055 33.8192 50.7364
-9.39026 -70.44 47.6138
-9.27894 -46.729 39.1913
-9.16353 -0.646178 61.3745
-9.0472 -10.1232 59.1144
-9.76907 38.3816 45.0134
-8.65271 -62.7153 26.0362
-8.89149 3.97643 27.9131
-8.87495 -45.4984 40.3998
-9.13017 -49.0269 27.6133
-9.89433 -2.03489 28.9237
-8.67269 -60.0673 43.8622
-8.32722 -72.6692 33.8771
-8.86329 -0.104333 28.032
-8.85027 -7.20833 60.1807
-9.20374 2.68086 61.6983
-8.81612 -65.1162 42.2259
-8.53551 41.3772 37.8854
-8.82459 -63.5319 39.9645
-8.82871 -44.2242 41.3607
-8.26051 -71.1444 28.1669
-9.00576 -40.7826 24.0698
-8.65351 -41.8425 43.9568
-9.07994 -66.3354 39.602
-9.13124 -68.305 39.3997
-8.86475 -60.1827 26.4061
-9.03222 6.33106 61.8799
-8.4658 41.0229 42.2664
-7.74151 2.61175 27.9079
-8.96785 10.2631 61.6465
-8.95834 14.4233 61.1172
-8.94854 18.3955 60.2974
-8.91228 24.6222 58.0361
-8.65785 -44.7234 25.8804
-8.86122 28.2766 56.0542
-8.46321 1.96458 27.6765
-8.55824 -40.2971 45.0775
-8.60522 -53.4312 26.5907
-8.44329 -29.8455 49.186
-8.38722 -52.956 40.1499
-7.58348 -67.624 45.7821
-8.13665 -48.7134 40.3461
-8.66628 32.9293 52.918
-8.26833 -65.1174 25.8133
-7.22937 -68.5903 44.6026
-8.19102 -37.3569 20.6317
-8.04644 -25.7678 52.2582
-8.18904 -64.3714 39.0164
-8.31574 -66.793 40.2635
-8.61256 -16.3407 56.8396
-8.10178 -13.2066 58.7981
-8.58613 36.431 49.7911
-8.4703 -69.6621 39.411
-7.97087 -63.1959 44.8132
-7.74592 38.7685 48.3804
-7.97851 -57.4767 25.3702
-7.14987 -67.8051 44.1032
-7.79303 -47.36 25.3848
-6.42861 -70.6281 43.7277
-7.7713 -67.5652 25.918
-6.79779 -70.5022 45.0413
-7.61385 -36.9674 47.1434
-7.48491 -32.9799 48.4731
-8.18482 -41.4858 23.5561
-7.75284 -44.552 42.4826
-7.58339 -46.4305 41.5494
-7.64799 41.9427 37.0758
-7.17913 -66.9441 42.4842
-7.43616 -31.089 49.3444
-7.31528 -54.1768 24.9711
-7.82946 -64.4189 40.0734
-7.59354 42.0928 39.8051
-7.76121 2.63244 62.7303
-8.17121 -72.3552 30.0078
-6.8868 -61.4884 44.7421
-7.54127 -45.308 24.5786
-7.27565 -66.548 41.7746
-7.28401 -6.85774 61.4503
-7.41481 -40.2276 45.9236
-7.52051 -64.7046 41.1826
-6.9205 -60.5753 24.1998
-7.81948 31.3635 55.06
-7.83829 26.2988 58.1268
-7.25764 -73.5429 32.791
-7.04794 -42.3128 45.0357
-7.7367 22.5101 59.8544
-7.74645 35.6565 51.6877
-7.71305 6.55708 62.7719
-8.55906 -71.0652 37.0691
-7.6685 19.0374 61.0131
-6.93047 -73.6291 35.5476
-7.19769 -68.1723 41.7595
-7.50005 -55.2932 41.8729
-7.61432 14.9723 61.9223
-7.60593 10.7327 62.5202
-7.87958 -70.9604 38.4808
-7.16139 -52.5719 41.2032
-5.95211 -45.2857 43.5474
-7.12556 -19.1559 56.7001
-7.04745 -0.845699 62.8523
-5.67843 43.3291 43.9448
-6.22603 -73.6072 30.4365
-7.07439 -16.6133 58.0981
-6.73318 -41.9228 22.2884
-6.91063 -73.3307 32.5496
-6.93926 -40.0057 21.4083
-6.66233 -65.6931 45.0549
-8.08469 -2.05183 26.9569
-6.37214 -70.7608 25.5556
-6.29687 -72.2683 26.3916
-6.73065 -56.7039 24.1824
-6.78718 -10.9138 60.633
-7.17278 -58.6022 43.9762
-7.13774 40.7159 46.4102
-7.38913 -48.586 25.0678
-6.19893 -74.5921 33.8798
-6.35296 -69.6635 41.8229
-6.3715 -47.6053 42.2798
-6.60942 42.4397 36.4705
-6.17952 -68.1703 44.9307
-6.29706 43.1322 42.0205
-6.58514 -68.4738 42.843
-6.27065 -50.7484 41.7816
-6.21323 -71.9501 38.9028
-6.42581 -73.2003 31.1257
-6.30063 -26.9223 53.0806
-4.71102 -74.2699 28.8481
-6.73703 33.9607 54.0161
-5.68568 -68.2735 24.0067
-6.73808 29.3157 57.1997
-6.24814 -41.1384 46.0004
-6.67295 37.9895 50.4951
-5.43858 -59.0094 44.7002
-6.00612 -52.2179 41.9684
-6.29765 -71.9543 32.1092
-6.26775 -72.1109 32.9985
-6.1591 -45.1559 23.1524
-5.90756 -73.491 28.3465
-6.81433 -21.5074 55.5721
-5.97385 26.0043 59.3948
-7.03971 -64.4717 24.5457
-6.15662 -69.8144 43.0271
-5.5991 -70.2832 24.496
-5.82873 -74.3811 35.7743
-5.949 -74.0203 32.9705
-5.90961 23.2268 60.6086
-5.78009 -38.1809 47.418
-5.91717 40.6017 48.2282
-5.75724 -63.9876 45.0334
-5.69566 19.7875 61.8494
-5.68784 -33.4786 49.3098
-5.84906 -59.8689 23.3738
-6.3039 43.0489 39.0843
-6.27971 6.13632 63.5781
-5.55483 -70.2919 42.1075
-5.54676 -14.6479 60.0444
-5.57501 15.5928 62.8544
-5.49394 11.3064 63.5479
-5.03396 -70.775 41.3035
-4.90377 -70.5171 42.6292
-5.44403 -73.4185 26.1488
-5.76855 -53.209 23.8027
-5.23721 -31.3254 50.676
-5.34667 -55.3174 43.2398
-5.70924 -72.3057 31.0403
-5.90225 -47.0295 23.4997
-5.51898 -7.97783 62.185
-5.31726 -49.4682 42.623
-5.79278 -72.4201 33.4328
-5.42999 -4.39568 63.0318
-5.63925 42.8722 36.2706
-5.96252 2.37782 63.7308
-5.3254 -0.930708 63.7311
-5.04032 -72.7062 23.897
-5.20871 -55.6602 23.1997
-4.79105 -70.0668 43.2704
-3.85624 -55.6074 43.9502
-5.16713 -63.1355 23.239
-5.55614 34.4446 54.3563
-5.2262 44.5098 42.0811
-5.42146 44.1874 40.555
-4.92445 -20.6587 57.507
-3.7586 -75.31 32.8124
-5.55103 29.9691 57.4521
-4.42744 -66.2653 22.9779
-5.05988 38.8704 50.7775
-4.59785 -72.7634 33.6506
-4.25226 -74.6712 23.7016
-5.22964 -67.6571 44.5493
-5.99422 -49.5259 23.8731
-5.32515 -72.4726 30.7737
-3.86445 -75.6605 34.7613
-4.09557 -43.645 45.1843
-4.72587 -46.5077 43.7541
-4.13731 -74.8562 27.732
-5.37509 43.8159 38.5034
-4.65795 -62.7639 45.2439
-4.26754 -73.7402 37.9006
-4.56225 -18.143 59.0803
-4.81301 42.941 35.4915
-4.66939 -41.129 20.6369
-5.00356 44.7891 43.1133
-4.37642 -70.685 23.8459
-3.71206 -51.9652 43.2397
-3.91478 -59.855 22.361
-4.2397 -65.7229 44.8799
-4.93613 -72.5932 30.605
-4.99057 45.5912 40.3906
-4.71065 43.7164 45.1315
-4.74861 45.2847 39.144
-4.91063 -11.8311 61.3766
-4.23684 -49.4069 22.8283
-4.81137 47.8922 41.6196
-4.91242 -26.666 54.0465
-4.35619 -45.7017 22.2336
-4.19123 -44.7458 44.655
-4.217 7.14922 64.4097
-4.13162 2.95862 64.498
-4.02804 -75.6226 24.3442
-4.23214 -74.8733 36.1868
-4.27379 -40.6184 46.6976
-4.35576 -71.5573 23.1976
-4.40065 50.896 39.2729
-4.30199 45.2722 44.2878
-4.53288 -72.6532 30.5122
-3.21584 -75.9133 33.7031
-4.1474 -74.1844 30.008
-4.45367 44.272 37.4994
-4.44886 -74.5809 32.764
-3.88153 -74.2264 23.0348
-3.54866 -53.5291 22.6973
-4.39133 48.2061 42.5861
-4.10697 51.9974 37.753
-4.3918 36.7312 52.9987
-3.8028 34.042 55.349
-4.01092 42.9211 35.0274
-3.70203 -72.9058 33.2427
-3.30906 -59.7224 45.1983
-3.83394 31.7628 56.9406
-3.12796 -53.1953 43.6732
-4.29356 50.1877 41.2629
-3.61973 -76.1292 25.2356
-3.29027 -69.1953 22.3091
-3.91835 -70.7289 41.7868
-3.76585 29.3217 58.4642
-4.20956 46.1461 38.0174
-3.33895 -70.7471 22.6179
-3.73544 -72.775 30.5569
-3.42029 -73.0111 22.6312
-3.39468 -34.1842 49.8237
-3.0876 -38.7533 47.7813
-3.43212 43.2536 46.8446
-3.93002 -56.1002 22.4783
-3.65951 26.7751 59.8519
-4.04469 52.3759 40.6265
-3.35459 -67.4989 44.3097
-3.5038 -70.4062 24.9023
-3.8331 57.9892 38.7648
-3.02274 -49.8787 43.7375
-3.84924 -27.9942 53.6571
-3.55633 23.8096 61.1948
-2.78945 -72.5845 23.1451
-3.28746 -71.1115 24.2221
-2.80083 -64.0657 22.2544
-3.25696 -69.2487 43.3302
-3.61787 59.0771 40.2149
-3.70004 -70.7122 25.4638
-3.78991 -71.3443 25.2055
-3.69537 44.4549 36.8542
-3.37826 20.184 62.4894
-3.65963 56.4901 37.615
-3.2788 -23.0852 56.9765
-3.65877 66.959 39.6413
-3.6522 -71.2056 24.3413
-3.52392 49.6096 42.9379
-3.21309 -12.4639 61.851
-3.1448 -16.0507 60.6215
-3.21023 -8.67027 62.8923
-3.21879 -5.05928 63.6989
-3.30236 -19.6682 58.9717
-3.24873 15.944 63.5352
-2.7502 -1.26939 64.5626
-2.26712 -74.3888 37.74
-3.58508 73.3834 41.5018
-3.40583 -74.4771 32.064
-3.1703 11.5924 64.2826
-3.53523 47.0486 37.0697
-2.9901 -74.0168 30.7557
-3.48717 79.2608 44.1255
-3.49144 66.7076 40.9393
-2.73302 -71.2104 24.7757
-3.46047 60.136 37.4842
-2.88872 44.8371 45.9007
-3.39106 71.85 42.2087
-3.62212 51.4431 36.6438
-2.91593 -76.0039 23.3388
-3.36581 84.688 47.6667
-3.35634 66.9426 38.3887
-3.06361 -70.1742 26.4054
-3.03567 -46.1898 44.5833
-2.71377 -72.7708 22.7742
-3.28436 -72.9508 32.7365
-3.3151 52.6984 41.8852
-2.56567 -75.5835 28.8322
-3.32758 78.4636 45.0212
-3.31307 73.574 40.3724
-2.74396 -50.0353 22.2194
-3.26527 90.4905 50.2152
-2.89449 -41.9787 20.3206
-3.21626 79.4303 42.9754
-3.22658 84.4992 48.8775
-1.65511 -55.8217 44.4374
-3.13817 96.6269 51.8282
-2.93313 56.6739 36.44
-2.71277 -46.0284 21.6255
-2.39218 -70.7159 26.2816
-3.05193 -73.0157 32.1863
-3.04802 85.0051 46.633
-3.11625 90.2825 51.3397
-2.38033 -76.9638 24.4885
-2.41038 -75.539 31.7938
-2.69932 53.1994 35.7905
-2.73829 42.5522 47.9439
-1.77776 -73.0348 39.6661
-2.98691 112.099 53.6069
-2.05169 -31.6395 51.7501
-2.55844 36.9884 53.299
-2.58435 -69.519 25.7743
-2.9812 59.6532 41.4739
-2.99617 96.2078 52.8763
-2.9601 90.8757 49.2557
-2.67407 -67.9466 25.0665
-2.62495 -74.584 30.4407
-3.0861 -73.1949 31.0586
-2.54242 43.5947 35.4471
-2.84397 112.472 54.6801
-2.8774 66.1616 42.0321
-2.03148 -73.9863 23.3115
-2.46808 -67.7586 24.7245
-2.47913 44.5062 35.9569
-2.85056 96.7224 50.8468
-2.91004 46.6659 36.5336
-3.22277 -70.3079 42.4281
-2.45763 49.5351 43.9966
-2.46383 -71.9971 25.05
-1.36587 -73.1002 21.1126
-2.63516 118.522 54.379
-2.23201 -75.3918 22.5105
-2.77274 71.8511 43.4191
-2.72439 111.699 52.6183
-2.72089 61.1006 36.5368
-2.70493 77.8771 46.0036
-1.27324 -55.7731 21.66
-2.64156 83.4552 49.6667
-1.2668 -53.6189 22.1308
-2.53784 118.471 55.2404
-2.66336 67.099 37.4391
-2.61523 73.841 39.5101
0.00364459 -60.3864 45.4955
-2.52441 79.9693 42.2206
-2.54742 89.9421 52.386
-2.40382 118.527 53.6066
-2.08796 -74.126 22.3052
-1.65787 -72.8223 23.4087
-2.43642 95.9266 53.9125
-2.12104 2.74399 64.9958
-2.1478 7.04592 64.9194
-1.98142 -75.7456 30.553
-2.37998 85.7551 46.1337
-2.31635 112.386 55.655
-0.929319 -72.0834 20.7104
-2.29421 52.8326 42.9017
-2.29656 92.2192 48.881
-1.19836 -18.8056 59.9289
-2.21616 -76.8278 26.4522
-2.5381 -57.6408 21.847
-0.712548 -74.3427 23.3693
-1.35652 -64.2962 21.7241
-2.21529 97.3685 50.1647
-1.83912 -70.7138 24.484
-2.13314 117.936 56.0569
-1.15101 -48.039 44.7472
-1.56676 -77.1525 25.4264
-2.12251 111.376 51.8384
-1.78586 -68.584 25.5592
-1.06171 -32.995 51.0714
-2.04744 59.8033 42.4496
-1.32963 -21.412 58.5286
-1.72559 -72.6305 25.549
-0.00213271 -34.2169 50.4797
-0.752529 -52.414 44.3471
-1.0942 -23.6586 57.2453
-2.1181 46.3425 36.0747
-1.74995 -68.0596 27.3482
-1.91938 118.262 52.9463
-2.00099 56.6515 35.6594
-1.95862 66.5705 43.0812
-1.92068 119.831 55.0498
-1.87887 71.7607 44.3832
-1.43982 48.202 45.0881
-1.90765 -69.6106 27.3768
-1.58235 -42.3861 46.0613
-1.78358 61.0743 35.7679
-2.56653 40.7447 49.8805
-1.8288 77.6955 46.9566
0.0040918 -64.3021 45.6047
-1.4324 -68.5905 26.2305
-0.50523 -76.1172 31.9691
-1.24972 34.1354 55.7419
-0.0620767 -65.9297 45.208
-1.81183 82.7977 50.3128
-1.25409 -44.5251 45.3043
-0.63058 31.8695 57.3752
-1.82399 53.5195 35.3337
-0.544114 29.3981 58.8868
-1.2567 120.125 53.6347
-0.82859 -74.5957 22.2444
-1.72459 -64.7135 27.0772
-1.24095 43.7275 47.4535
-1.80979 67.298 36.824
-1.73197 89.7584 53.2792
-1.12585 -70.2288 24.7146
-1.70864 75.046 39.2338
-0.461309 26.7528 60.2877
-1.66588 -66.4456 27.9808
-1.10369 -49.4082 21.8038
-1.65181 95.819 54.7434
-1.13925 45.8309 46.2473
-1.24743 23.7449 61.5468
0.0992946 -56.5259 44.6931
-1.64125 80.8494 42.0733
0.00317499 -75.9735 34.7278
-1.02394 -72.5625 23.2253
-1.45832 -69.0765 25.4641
-0.954563 -74.7715 23.0362
0.0261044 -68.1762 44.2373
-1.56965 112.489 56.4422
-1.55516 -66.6912 27.4375
-1.55945 85.0532 44.9973
-0.00060022 19.9604 62.9524
-0.914188 -45.5581 21.0741
-1.53811 87.7888 46.5049
-1.15345 -12.7621 62.1429
-1.06312 -8.31539 63.3427
-1.11271 117.756 57.0074
-1.49052 -70.9092 27.2589
-0.998503 -77.873 25.3642
0.00047839 15.6726 63.9869
-0.991318 -15.9709 61.114
-1.48677 92.9915 48.5806
-1.01185 11.4202 64.631
-1.15192 120.44 54.6075
-1.4398 97.7773 49.6992
-0.689036 120.423 55.9824
-1.38087 107.599 50.8438
-1.50199 119.245 56.4413
-1.3521 116.716 52.1937
-0.89991 -50.3465 44.3748
-0.80215 -76.9659 23.394
-0.452094 -76.8364 29.2085
-0.898884 -67.2604 26.5331
-0.830365 -73.8564 24.3787
-0.560082 -77.3987 24.6344
0.718044 -38.3731 48.1331
-0.869041 -57.7324 21.4896
-1.16723 -72.8665 23.6447
-0.75992 119.511 52.8517
-1.18642 51.6198 43.8493
0.334167 -73.9568 38.7814
-1.2871 -78.0071 25.7983
-1.15959 54.4164 43.3423
-0.711925 -65.2543 27.8763
-0.471008 -65.3177 25.7326
-1.04381 -66.3597 28.3543
-0.798316 -76.8593 25.8971
-0.561021 -71.045 23.9962
-0.601812 45.421 35.6474
-1.02891 60.5491 43.0649
0.00368244 -70.2759 42.7369
-0.430292 43.7817 35.1825
-0.712457 -73.5198 20.9797
-0.993397 67.4233 43.7758
-0.766658 -71.0518 25.2056
-0.958 72.9018 45.3673
-0.865292 61.7051 35.3856
-0.501001 -69.7465 27.9769
-0.994005 53.692 35.1387
-0.372395 -75.2251 22.463
-0.921521 77.5409 47.5308
-0.912477 -68.0002 27.8699
-0.913069 82.4413 50.739
-0.00320179 -76.217 33.4866
-1.14906 -69.7403 25.9153
-0.871693 88.9193 53.5671
-0.844423 69.3257 36.9061
-0.304651 42.6404 48.456
-0.763833 36.6043 53.7986
-0.840887 95.5618 55.2418
-0.802506 76.3145 39.3774
-0.626144 -64.316 26.3314
-0.806308 100.729 55.7215
-0.644904 -74.0705 23.0366
-0.500643 80.9829 41.6868
-0.786201 112.198 56.8808
-0.763291 86.4419 45.5195
-0.484857 -78.1718 26.2723
-0.719995 92.3907 48.0926
0.45681 -1.51612 64.8352
0.371395 2.50706 65.205
-0.71089 97.5226 49.4003
0.312537 6.76043 65.1548
-0.446888 -64.2798 21.6071
-0.342488 -67.669 26.3428
-0.66921 111.056 51.0475
-0.267778 -77.6326 24.7707
-0.735639 119.813 56.6993
0.00202096 -73.6844 23.0413
-1.63745 -68.0254 21.578
0.230732 -71.9155 41.1782
0.698349 -67.8305 21.4124
0.560575 -74.7918 22.2136
0.00200582 -71.4207 24.2013
0.00221832 -73.8906 22.7042
0.326281 -78.4164 25.6987
0.0636064 -75.401 22.6483
0.0695399 -70.4104 24.5298
-0.0586414 -76.7719 23.3849
0.829091 -45.5281 21.0281
0.61885 11.3128 64.6858
0.728909 23.711 61.6071
0.317037 44.4566 47.1734
0.3551 47.3024 45.6982
0.00012755 51.3967 44.1221
0 53.7124 35.068
0 54.6586 43.5266
0 61.9031 35.2751
-0 60.8848 43.2603
0 69.0778 36.7292
0 68.1574 44.1137
-0 73.4305 45.7808
0 76.2168 39.2074
0 77.3312 47.6218
-0 81.8863 50.6061
0.378165 85.162 44.5827
-0 86.2699 52.7469
0.407083 87.5625 45.9776
0 92.5981 48.0809
-0 91.7378 54.5856
-0 97.6397 49.3379
0 96.599 55.5584
-0 100.631 55.8681
-0 106.829 50.3979
-0 111.84 56.9974
-0.240088 118.104 52.1929
0 118.177 57.2666
0.568404 119.851 56.7495
0.75022 120.107 53.3157
-0 120.639 54.4368
1.11875 -49.4127 21.794
1.05604 -12.8419 62.1333
0.00362735 -53.479 22.222
0.70669 -55.8941 21.6348
0.936599 -57.709 21.4911
1.164 -22.2619 58.0957
-0.146772 -70.7595 20.7093
0.623265 -30.8146 52.6191
0.4816 -64.2893 26.2668
0.488207 -65.2943 25.7427
0.234423 -73.7037 20.9523
0.697839 -64.5261 27.0803
-0.247047 -31.2472 52.3391
1.12655 -69.6901 25.9301
0.00213854 -66.2949 28.4608
0.619893 -74.1777 23.0053
0.458694 -74.5696 23.1692
0.58114 -68.002 27.9795
2.30954 -42.8232 45.7917
0.820098 -44.5142 45.3047
-0.454521 -70.893 27.6392
0.239467 -48.1122 44.8271
0.467866 -51.6976 44.3826
0.150632 -53.0205 44.5467
0.806585 -76.9652 23.3929
0.662422 -72.5932 23.145
1.05215 -75.4966 22.4513
0.324764 -77.4569 24.8446
0.22987 -75.3454 23.2068
0.692635 -76.4854 29.9983
0.615272 -70.7792 25.3665
0.634083 -67.6717 26.4604
0.0692456 -73.6299 25.0214
0.635596 -72.0495 20.6017
0.803539 -76.8593 25.8968
1.00099 -73.4356 21.0568
1.16641 -73.6217 23.1812
1.13056 118.414 52.5006
0.16285 -74.9541 37.1766
0.666361 116.656 51.9501
0.770185 -76.0705 32.0173
1.25635 -53.6175 22.1265
1.04938 120.276 55.8694
1.27564 -78.02 25.7504
0.667808 107.712 50.6038
0.71089 97.5226 49.4003
0.983132 -18.8487 59.9109
1.71629 -72.7279 25.4394
1.57198 -77.1523 25.4261
1.11271 117.756 57.0074
0.719995 92.3907 48.0926
1.06381 -15.9632 61.1065
1.14266 -8.14794 63.3726
1.15192 120.44 54.6075
0.0037325 -63.0018 45.7395
1.93062 -74.0981 23.3018
0.786201 112.198 56.8808
0.807779 80.9407 41.7543
1.24881 -70.9051 27.4284
0.806308 100.729 55.7215
0.802506 76.3145 39.3774
0.840887 95.5618 55.2418
0.844423 69.3257 36.9061
1.49183 39.4606 51.27
1.00364 -77.8729 25.364
1.34118 35.1193 55.0047
0.871693 88.9193 53.5671
0.865292 61.7051 35.3856
0.900874 -67.2095 26.526
1.31811 43.1073 47.8639
0.913069 82.4413 50.739
0.994005 53.692 35.1387
0.921521 77.5409 47.5308
1.46446 -69.6697 27.6575
1.52122 -64.7121 26.795
1.17319 -70.1447 24.7112
0.958 72.9018 45.3673
0.993397 67.4233 43.7758
1.04809 -66.3596 28.3541
1.02891 60.5491 43.0649
1.64925 44.2608 35.4646
1.61811 -72.9126 23.3514
1.12079 45.7342 35.7242
1.15959 54.4164 43.3423
1.50199 119.245 56.4413
1.7286 -65.0348 27.4427
1.18618 51.6243 43.8482
1.40093 -68.5434 26.2368
3.76996 -66.0784 44.8064
1.14176 -71.3581 24.4323
1.46232 -69.0764 25.4638
1.6227 -72.775 21.2689
2.33647 -75.5106 31.5894
1.92133 -29.4843 53.2609
1.107 -64.3567 21.6732
1.7899 -68.5838 25.5588
1.37566 111.167 51.3132
1.80189 -48.4214 44.4971
1.4398 97.7773 49.6992
1.91154 -75.8754 30.3266
1.71908 119.687 53.6723
2.09233 -74.1255 22.3048
1.48677 92.9915 48.5806
2.3236 -68.9421 21.7157
1.53811 87.7888 46.5049
2.06606 -55.7902 44.3677
1.56965 112.489 56.4422
1.55945 85.0532 44.9973
1.55926 -66.691 27.4372
2.49711 -45.1428 21.257
3.48137 -70.8186 41.8445
3.72307 -70.4218 42.3498
1.64125 80.8494 42.0733
1.65181 95.819 54.7434
1.75428 -68.0595 27.3479
1.82229 46.3248 45.7162
2.22153 -76.8274 26.4519
1.67006 -66.4454 27.9804
2.19382 -45.4198 44.9559
3.26457 -69.2487 43.3292
2.79355 -72.5841 23.1446
1.70864 75.046 39.2338
1.73197 89.7584 53.2792
3.31569 -59.7214 45.1975
3.09856 -74.0414 38.0131
1.82399 53.5195 35.3337
2.38505 -76.9636 24.4879
2.46622 26.6821 60.1194
1.80979 67.298 36.824
1.90946 -70.7223 24.4935
2.83685 -75.7962 34.7366
2.51109 29.24 58.7642
1.78358 61.0743 35.7679
1.81183 82.7977 50.3128
2.54179 31.6807 57.2756
2.57011 40.7387 49.8849
1.91938 118.262 52.9463
2.71774 -72.7705 22.7736
1.8288 77.6955 46.9566
1.92068 119.831 55.0498
3.17729 -39.1039 47.5871
1.87887 71.7607 44.3832
2.4718 -67.7583 24.724
2.1325 -70.7486 26.5874
2.44832 50.9025 35.6879
2.13297 -56.2329 21.7974
1.95862 66.5705 43.0812
2.13314 117.936 56.0569
2.04744 59.8033 42.4496
2.73707 -71.2102 24.775
3.24806 -75.8806 33.5599
2.12182 46.424 36.0683
3.0303 -49.8738 43.7342
3.2946 -69.1932 22.309
2.12251 111.376 51.8384
2.92048 -76.0034 23.3381
2.40382 118.527 53.6066
2.48524 -75.6539 28.9075
3.13381 -53.2021 43.6741
2.40815 -72.1743 24.9002
2.21529 97.3685 50.1647
2.23641 -75.3915 22.5101
3.04421 -59.4852 22.017
2.29421 52.8327 42.9017
2.53784 118.471 55.2404
2.29585 -64.1112 22.039
2.29656 92.2192 48.881
4.66492 -62.7625 45.243
2.31635 112.386 55.655
2.64708 -74.6431 30.3008
2.83447 -18.8107 59.5436
2.63516 118.522 54.379
2.14296 55.3186 35.6134
2.37998 85.7551 46.1337
2.72897 -48.7152 22.0948
2.58851 -69.5185 25.7737
2.45732 49.5356 43.9964
2.43642 95.9266 53.9125
2.90129 44.7562 45.9389
3.73757 -67.6255 44.259
3.13282 7.15454 64.7194
3.16973 11.5927 64.2825
3.05841 -70.2276 26.4227
3.11692 2.8835 64.7937
2.52441 79.9693 42.2206
3.14568 -16.0557 60.621
4.82363 -65.0899 44.9634
3.1463 -1.1663 64.4659
3.24692 15.9414 63.5361
2.54742 89.9421 52.386
3.21878 -5.05996 63.6997
3.20946 -8.67484 62.8915
3.21411 -12.4698 61.8513
3.29135 -71.1112 24.2214
3.37613 20.1929 62.4863
2.61523 73.841 39.5101
2.64156 83.4552 49.6667
2.66336 67.099 37.4391
2.72439 111.699 52.6183
2.67788 -67.9461 25.066
3.03765 -74.2062 31.081
3.42506 43.2564 46.8344
2.70493 77.8771 46.0036
2.72089 61.1006 36.5368
3.55626 23.8139 61.1922
3.34255 -70.7463 22.6171
2.77274 71.8511 43.4191
2.84397 112.472 54.6801
3.42433 -73.0105 22.6306
2.91687 46.5346 36.5546
3.71903 -51.9701 43.2398
2.85056 96.7224 50.8468
2.93313 56.6739 36.44
2.8774 66.1616 42.0321
3.5189 -23.9908 56.3443
3.19558 51.8563 36.1896
2.98691 112.099 53.6069
3.02234 -74.0043 30.7108
3.33407 44.9157 36.6194
3.70898 -20.5416 58.3243
3.09199 -73.1945 31.058
3.62476 -76.1287 25.2347
3.55555 -53.5357 22.6972
2.9601 90.8757 49.2557
2.99617 96.2078 52.8763
2.9812 59.6532 41.4739
3.47673 43.874 36.0187
3.70431 -70.7117 25.463
2.73595 42.5499 47.9387
3.79419 -71.3438 25.2046
3.05785 -73.0153 32.1855
3.04802 85.0051 46.633
3.86173 -55.6069 43.9495
3.11625 90.2825 51.3397
3.91688 36.7841 53.1383
3.80225 34.0416 55.3499
3.67087 -32.6143 50.5509
3.3151 52.6984 41.8852
3.13817 96.6269 51.8282
3.41195 -74.4767 32.0634
3.22658 84.4992 48.8775
4.30893 -46.2805 44.0572
3.29001 -72.9505 32.7355
3.21626 79.4303 42.9754
4.24594 -74.4382 36.9842
4.43015 -66.265 22.9767
3.26527 90.4905 50.2152
4.10027 -74.5985 28.6715
4.03279 -75.622 24.3434
4.15309 -74.1837 30.0072
3.32758 78.4636 45.0212
3.31307 73.574 40.3724
3.36581 84.688 47.6667
3.88574 -74.2262 23.0341
3.35634 66.9426 38.3887
3.39106 71.85 42.2087
4.35958 -71.557 23.1966
3.65632 -71.2051 24.3407
3.46047 60.136 37.4842
3.50355 46.8324 37.0799
4.17194 -75.5733 34.6105
3.48717 79.2608 44.1255
3.73354 51.6746 36.8391
3.5482 49.4361 43.0081
3.49144 66.7076 40.9393
3.70734 -72.9054 33.2415
3.61787 59.0771 40.2149
3.58508 73.3834 41.5018
3.50789 -70.4057 24.9016
3.65877 66.959 39.6413
3.65963 56.4901 37.615
4.38867 -44.3052 44.7481
4.3804 -70.6843 23.8451
4.34912 -56.6982 22.6242
3.8331 57.9892 38.7648
4.55497 -27.9958 53.3916
3.74125 -72.7744 30.5562
4.87151 -59.7833 22.8033
4.34055 -45.751 22.2152
4.23827 -49.4149 22.8231
4.04468 52.3759 40.6265
4.348 45.125 44.3455
4.11805 51.9018 37.7584
5.68932 -68.2727 24.0055
4.19679 46.19 38.0685
5.44501 -59.0086 44.6991
4.7689 26.6456 59.5892
4.45516 -74.5803 32.7631
2.5833 -34.3424 49.9588
4.56368 -18.1474 59.0789
4.40144 50.8954 39.2669
4.60508 -72.7624 33.6496
5.05934 38.8736 50.7755
4.7028 43.7182 45.1252
4.90872 29.1732 58.1887
5.44878 -73.4178 26.1477
4.25683 -74.6703 23.7007
6.01507 -61.1915 23.5322
4.52123 -74.5077 27.6997
4.29356 50.1877 41.2629
4.90137 -70.2596 43.2159
5.0019 31.5799 56.6678
4.46415 44.2977 37.5199
4.43021 47.9146 42.727
5.34905 -55.3149 43.2399
5.32718 -49.3727 42.6357
5.35471 -40.9296 46.3328
4.6676 45.9506 39.1334
5.23745 -67.6562 44.5484
5.04127 -70.7742 41.3028
4.53844 -72.6526 30.5113
5.00431 -70.5239 42.3893
6.23136 -73.6065 30.4351
5.04465 -72.7054 23.896
4.83188 47.7163 41.774
6.22078 -71.949 38.9016
4.82566 42.9273 35.5586
5.08313 45.5778 41.1467
5.83534 -74.3806 35.7728
5.39456 2.67254 64.0095
5.49202 11.3055 63.5487
4.80894 6.99474 64.1875
5.32628 -0.932888 63.7315
3.7653 -75.3093 32.8118
5.00438 44.7637 43.1561
5.43031 -4.4013 63.0317
5.57482 15.6164 62.8511
5.5187 -7.98487 62.1834
4.91086 -11.838 61.3777
5.60341 -70.2823 24.4951
5.15566 44.1648 38.7755
4.94168 -72.5925 30.604
6.20515 -74.5914 33.8786
5.5482 -14.6548 60.0442
5.69535 19.7997 61.8447
5.73419 -31.6175 50.2244
6.01101 -52.2273 41.9703
6.27148 -50.7498 41.7846
5.6117 -53.4559 23.7055
6.89309 -61.487 44.7408
5.79972 -72.4187 33.4305
5.61067 -7.45463 27.3945
5.68699 -33.4676 49.3141
5.90984 23.2329 60.6047
5.91568 40.604 48.2266
5.42065 44.2011 40.5858
5.78617 -38.1878 47.4074
5.44072 44.1499 42.1683
5.91286 -73.4901 28.345
5.33073 -72.4718 30.7726
5.90347 -47.0353 23.4887
6.05759 -19.6066 57.3169
5.9554 -74.0195 32.9693
5.99466 -49.527 23.8706
5.75598 43.4451 43.3933
6.09185 -63.3566 44.9882
5.88189 -22.209 55.9405
5.56232 -70.2912 42.1064
6.63658 -56.74 24.0521
5.60731 42.9378 36.4964
6.13222 -45.2993 23.1513
5.55582 34.4449 54.3568
5.95584 -45.2776 43.5389
6.37636 -70.7598 25.5542
5.666 -7.39205 28.0992
6.29967 -26.8958 53.1134
5.71682 -72.304 31.0398
7.26401 -73.5417 32.7895
6.37626 -47.5997 42.2761
6.43156 -73.1993 31.1244
6.30154 -72.2674 26.3905
7.05789 -42.2941 45.0286
6.18741 -68.1696 44.9294
6.66989 -65.6923 45.0535
6.65793 -70.5774 43.9804
6.16435 -69.8135 43.026
6.80547 -70.5011 45.0394
6.91672 -73.3297 32.5482
7.13227 40.7181 46.4169
6.78786 -10.9207 60.6342
6.27367 -72.1101 32.9975
6.30407 -71.9533 32.1087
6.94021 -3.49237 29.5993
6.36658 43.1653 40.1576
6.3604 -69.6626 41.8216
7.17859 -58.6006 43.9747
6.27971 6.13632 63.5783
7.07616 -16.6197 58.0965
6.59255 -68.4729 42.8418
6.80061 42.3462 36.9705
7.2336 -40.4649 45.9125
6.9753 -64.355 24.4768
7.77549 -67.5649 25.917
6.89841 -53.9921 24.6255
6.67269 37.9894 50.4963
7.23225 25.5176 58.9258
7.40446 -41.2758 22.5758
7.16717 -52.5842 41.2049
6.67977 -4.54505 28.5957
7.15745 -67.8043 44.1019
6.73797 29.317 57.1987
9.09066 -71.4525 46.8925
7.95945 2.99742 29.2926
7.50749 -55.2932 41.8705
6.73719 33.96 54.0173
7.18947 -3.76371 28.0532
7.0484 -0.848464 62.8526
7.73329 -58.6051 24.9875
7.20495 -68.1715 41.7579
7.28269 -66.5468 41.773
8.17681 -72.3539 30.0064
8.13067 -64.5602 25.5289
7.58721 -46.4255 41.5466
7.1863 -66.9431 42.4828
7.62248 -30.8693 49.3987
7.00918 -48.2911 24.6723
6.93748 -73.6278 35.5463
7.28337 -6.83677 61.4561
7.76021 2.63048 62.7317
7.79437 -47.3644 25.3796
7.06654 -3.42644 28.6423
7.58175 -44.8926 24.4686
7.61977 42.0796 39.7768
7.5916 -67.6233 45.7808
7.89808 -32.8135 48.2565
7.23724 -68.5892 44.6012
7.75671 -44.5452 42.4773
7.7718 -54.1514 25.4791
7.68184 41.9478 38.2579
7.88662 -70.9591 38.4794
9.39883 -70.4388 47.6119
8.26523 -71.1432 28.1649
7.5271 -64.7035 41.181
8.10258 -13.2167 58.7981
7.97721 -63.1947 44.8116
8.67885 -60.0657 43.8603
7.8358 -64.4178 40.0718
7.84391 -1.93028 29.7073
8.26387 -17.1239 56.7936
8.21556 -20.9876 54.5752
8.08255 -25.6794 52.2897
7.60593 10.7329 62.5201
7.61432 14.9985 61.9192
7.74656 35.6556 51.6893
7.6685 19.0515 61.0079
8.56589 -71.064 37.0669
7.71305 6.55716 62.772
8.01729 -49.0972 25.8196
8.40063 22.2077 59.5272
9.2124 -58.5923 42.8634
8.46198 41.0373 42.2339
7.81951 31.3645 55.0596
7.83546 27.771 57.2963
8.47745 -69.6606 39.4092
8.82324 -65.1147 42.2241
8.14275 -48.7148 40.3418
8.03387 -2.91711 31.107
8.32242 -66.7919 40.2618
9.22876 -65.7991 43.3117
8.39259 -52.9693 40.1516
8.65972 -41.8319 43.9516
7.61851 -36.9648 47.1391
8.19516 -64.3702 39.0147
8.74524 -65.2781 45.4755
8.56244 -40.2962 45.0695
8.61178 -42.1061 24.4132
8.2533 -1.947 30.644
8.85153 -7.213 60.1788
8.6629 -64.0197 41.0338
9.11943 -62.8626 38.5269
8.33345 -72.6681 33.8755
8.81696 -55.7742 40.9712
9.09612 -62.018 26.6461
8.95035 -54.0649 27.0091
8.31524 40.4077 44.6645
7.74578 38.7677 48.3819
8.88846 -45.4874 40.3879
9.16365 -0.649831 61.3753
9.0478 -10.1264 59.1159
8.83308 -44.2177 41.3574
8.65681 -44.7354 25.8674
8.76846 36.6424 49.2851
8.66631 32.9301 52.918
8.83061 -63.5309 39.9631
9.04821 -3.01642 31.8877
9.60873 2.9743 31.1155
9.20811 -29.8394 48.3972
9.28613 -0.431728 28.9114
8.86068 -0.867931 31.1441
9.65033 -70.5438 30.5862
10.7193 -71.6403 48.5174
9.15909 -4.51487 27.9441
9.25691 -49.0106 39.0002
8.99703 -69.0077 27.8612
9.08636 -66.3341 39.6002
8.84342 28.3275 56.0403
9.48176 -70.5627 35.1674
9.33219 -35.4306 46.368
9.95918 3.1565 30.006
10.017 -67.4697 45.3104
9.41544 -53.9731 39.2314
9.09334 -49.2487 27.5655
9.28196 -46.7291 39.1902
9.35325 24.4057 57.7353
9.8719 -57.6169 41.5427
9.80674 -64.1049 38.4318
8.94854 18.4102 60.2924
8.95834 14.4499 61.1148
9.83291 -62.6885 44.4708
8.96785 10.2634 61.6463
9.67261 -31.8347 47.0093
9.5947 -45.4048 27.7451
9.03222 6.33113 61.88
9.77864 -65.431 39.1194
9.70105 -58.2414 27.8591
9.52945 -65.1227 27.4791
9.34363 40.5568 39.221
9.80445 -0.728688 29.1495
9.42947 -42.5019 25.9166
9.4398 -38.071 22.8119
9.38492 -62.7739 39.1471
9.20374 2.67967 61.699
9.91256 -53.411 38.3559
10.3557 -68.5107 29.9349
9.88217 -2.14263 28.8692
10.9608 -68.6994 32.4599
9.47414 -3.62887 31.0143
9.69668 -19.8889 53.495
9.93877 38.1405 45.0233
9.86423 2.29504 29.4875
9.85855 -41.3605 42.5513
10.1885 -64.0237 41.0668
9.56633 -14.3692 56.811
9.13828 -68.3036 39.3975
9.81092 -60.5497 27.8425
9.85987 33.311 50.6641
9.56255 -39.4523 44.4612
10.0383 -0.0122368 29.7762
9.9267 39.2565 42.726
9.91871 30.2773 53.1343
10.0284 -0.575461 32.4243
9.94989 -40.3873 25.2795
10.1281 -68.4742 37.6351
9.79598 27.4193 55.3995
10.4695 -41.9577 40.2829
10.2985 -3.85585 28.2475
9.94728 -6.55991 59.3412
10.54 -1.40431 33.6286
9.9659 -55.8257 39.5959
9.85282 -50.3736 29.1452
10.521 -66.8096 37.6746
10.6992 -69.9998 48.3719
10.6116 -60.7706 43.2773
9.91486 -45.6106 38.3263
10.3915 21.0019 58.1396
10.094 -45.5647 29.0434
11.2564 -68.4216 47.8759
10.1948 39.6506 36.6951
10.1495 -49.2319 37.4335
10.2418 -3.16806 33.8989
10.5073 -43.6808 29.3155
9.69446 -24.7389 50.8474
10.5715 -64.275 28.936
10.0805 17.7757 59.4484
11.8721 -65.7633 43.9499
10.6373 -39.1963 42.928
10.1607 9.76276 60.6237
10.1647 13.9079 60.1397
10.5834 -28.1001 47.2668
10.1852 5.99736 60.8502
10.9606 -57.6065 30.8476
11.0524 -70.8998 48.4032
10.5673 -42.4474 39.1928
10.7833 -63.7585 39.5877
10.6831 -64.8105 38.233
10.5649 -13.9402 55.6769
10.3008 2.52061 60.6572
10.8955 -65.6967 37.6169
10.7749 -29.9773 46.1621
10.4911 -49.2052 30.7455
10.4692 -51.7258 30.5969
10.8109 0.00529464 30.5829
10.6322 39.1305 40.1635
10.7174 -65.0902 45.7292
10.4185 -47.6808 36.6022
10.7946 -9.57305 57.3324
10.7228 3.61554 33.0989
10.8419 -3.93222 34.0467
10.5296 -45.2283 36.4246
10.6857 -6.25034 28.7781
11.4774 -66.3466 44.7046
11.1495 34.9977 46.425
11.0175 -68.3116 34.6535
11.0701 -6.32787 27.8629
10.5899 -55.2306 38.0789
10.5247 -45.3885 30.5557
10.6237 -1.92986 59.7123
11.7983 -69.3841 47.4975
11.1723 -62.3092 30.1318
10.7328 -41.0433 28.1381
10.8477 -54.2577 36.5725
10.6657 -43.6804 37.0186
11.0193 0.319526 31.8161
10.6455 -38.3576 25.3887
10.5979 2.97627 29.6323
11.4327 -34.4562 23.9369
10.7069 -23.3051 49.9987
10.7807 -45.5073 32.2085
11.1839 2.28643 31.8572
11.1177 4.24031 32.9334
10.7924 2.65999 31.6148
9.88677 2.21813 30.3481
11.1306 22.6361 56.3807
10.901 -51.4954 35.3135
11.1182 -33.4054 44.9811
10.8218 -45.5387 34.1321
11.3462 -5.9718 32.3455
10.9959 -52.4146 32.7106
12.9138 -65.5759 42.3015
11.1921 -2.86383 30.7997
11.0443 -42.5723 35.2736
11.0171 -42.7537 32.8302
11.215 -57.8122 39.9251
11.5087 37.6492 41.6347
11.425 -6.44419 57.6308
11.1211 -41.3828 38.2996
11.3357 17.3881 58.1019
11.2966 -41.377 32.1014
11.3509 -56.151 32.9032
11.2006 38.6145 37.9552
11.1813 -54.2899 34.378
11.2492 -55.6688 36.7756
11.1881 -39.5053 28.051
11.0957 -1.28071 33.6004
12.2266 -5.09553 30.8625
11.7603 -0.371174 31.2322
11.3292 -65.4336 30.816
11.8738 -60.6085 42.2491
11.4778 -21.2258 49.7035
11.6382 -65.7473 35.5584
11.2869 -55.3484 35.2479
11.1653 7.09955 59.6642
11.9177 -35.7109 25.8051
11.5011 -38.2093 41.298
11.6577 30.8799 49.2379
11.2837 -3.56959 35.2367
11.5291 -65.5206 36.4166
11.4471 -65.2517 38.4233
11.1098 25.852 54.35
11.2889 13.7676 58.843
11.3019 2.36156 59.4194
11.7122 -1.39039 32.9943
11.3009 2.9383 30.6344
11.595 -33.921 43.9283
11.3689 -12.2346 55.1948
11.5963 -5.21452 34.486
11.6091 -66.9071 33.3033
11.6763 -60.4415 31.8701
11.7189 3.13462 35.3278
11.829 -25.5953 45.9481
11.7613 -65.1347 37.8549
11.7455 5.45242 36.6427
11.8798 -4.74552 35.6596
11.6955 19.5045 56.8901
11.5647 -2.91038 58.3305
11.7444 -7.59616 29.8931
12.3976 -65.3827 40.4911
11.8551 -28.2382 44.8203
12.1168 35.3698 43.8495
12.5085 0.335267 36.7095
11.8205 -62.4926 32.0361
12.1076 -59.1603 39.3073
12.31 -36.6793 27.8475
11.8236 -64.6616 32.548
12.1744 3.5043 34.3183
12.2742 -71.4751 49.3236
12.1083 -59.1279 34.1449
12.2159 -7.0937 29.4665
11.9933 -7.33715 32.8293
12.0095 -64.0147 34.72
12.5566 -37.8185 35.0024
12.5112 -59.652 37.6134
12.0172 3.2343 32.3703
11.8697 -1.3422 33.0935
12.0277 3.22075 30.5244
11.7749 -63.7602 44.5312
11.9881 -9.82907 55.3291
12.0942 37.2852 38.9836
12.3466 -38.332 30.5583
12.2751 36.2172 41.9917
12.4001 -61.4488 34.4931
12.0913 24.5793 53.2586
12.0637 -62.6202 33.4882
12.3184 21.3638 54.7323
12.3567 -33.1408 42.6597
12.2715 -37.2039 38.6762
12.2599 -3.12777 33.2962
12.589 -7.61897 36.2866
12.5537 -65.4261 39.6611
12.0865 6.93876 58.2358
12.529 -32.1295 25.3563
12.2472 -64.3233 38.1123
12.7041 5.85891 37.5719
12.8432 3.35953 39.1827
12.5024 11.8488 57.0669
12.4809 -60.8771 41.3563
12.6655 5.07176 38.8825
12.7871 -30.9282 42.6029
12.4932 -64.8301 39.1086
12.2655 1.0829 57.8214
12.5999 -17.5863 49.3076
12.6874 32.4128 45.6577
12.7935 -37.2023 32.5996
12.4978 -6.44976 36.1836
12.3893 -63.0043 36.0527
12.3864 17.7369 56.0423
12.8268 -33.6348 27.154
12.5108 3.51815 32.0118
12.8814 -63.2576 42.9895
12.6212 -20.0202 47.5817
12.7069 -34.3431 39.8286
12.974 8.75453 41.7636
13.1343 -70.3763 49.124
12.5716 -60.8005 39.3242
13.1147 -67.1884 45.5731
12.6884 -8.64135 35.2325
12.4558 -3.27108 56.8584
12.7031 35.9863 35.747
13.1901 6.67771 42.063
12.6822 -62.361 39.6217
12.5532 -2.85491 33.8862
12.9251 -5.74607 55.2956
12.573 -0.720205 29.505
12.5942 -4.78716 34.9956
12.5892 -1.19214 31.8205
12.7208 -63.8391 39.3499
13.617 -70.4297 48.9674
13.1296 -24.9611 25.3806
12.7675 4.32177 35.0302
12.7099 -8.98868 54.2771
12.6789 -25.7495 43.5575
12.6867 -8.96788 31.2206
13.6256 27.8091 47.364
13.3983 -31.5839 40.1307
13.3289 -2.91458 37.0781
13.0501 8.79488 41.2983
13.31 -4.56157 34.9201
12.9493 -9.30832 29.4722
12.9124 35.6642 39.7464
13.0486 -12.7221 51.0175
13.2925 -66.169 43.7432
12.8311 6.80758 56.7366
13.145 -9.99591 32.971
13.1068 -34.8889 29.9212
13.1732 16.9267 54.1961
13.016 -62.9908 41.3061
13.1148 -22.7083 43.7739
13.0992 4.69095 31.0598
13.2869 -33.4114 36.8194
13.167 4.70308 33.5679
13.2958 19.5207 52.8279
13.202 5.18629 35.6448
13.5655 -64.6054 43.2966
13.5866 33.617 41.4698
13.3798 25.0193 49.7817
13.1798 -1.97527 55.6704
13.8736 -68.3464 46.6154
13.1364 -2.54962 32.7947
13.1497 -25.3714 42.3039
13.3714 -65.2417 40.413
13.1761 -4.3789 33.9474
13.1767 -1.47441 30.7567
13.3833 10.135 42.5739
13.6786 -10.3123 30.9974
13.6299 -29.3125 28.4591
13.4527 -6.71768 34.7151
13.3202 9.03671 55.2617
13.3497 -8.26094 53.083
13.4543 32.7184 43.2625
13.772 -9.68604 36.0191
13.8376 8.07646 38.037
13.9597 -1.71991 41.076
13.4706 2.92506 41.6042
13.8222 -24.6304 27.0704
13.7728 -31.2672 31.8883
13.5966 9.69057 44.9717
13.5158 -17.5387 46.744
13.5395 34.0588 36.2846
13.4143 -66.9403 46.4044
14.0332 12.0931 42.5081
13.6399 -32.4057 34.6366
13.6873 -26.648 40.7586
13.574 -3.59973 32.7976
13.6491 -66.4956 43.4672
13.8585 -29.2611 39.8281
13.7386 -11.2205 32.5874
14.0532 32.658 39.1161
13.7975 -1.20211 54.1361
13.7412 -2.76136 30.7834
13.7402 12.1666 45.0794
13.7849 -66.0719 42.8366
13.7651 23.1561 49.5882
13.6702 8.88077 53.9822
14.008 -12.9396 37.2215
13.6709 -11.9873 36.1263
14.1835 14.3315 44.7706
13.7164 16.8551 51.9893
13.7775 -22.3218 40.9109
13.9217 3.56765 44.438
14.2268 -21.4518 38.881
14.0469 -5.54109 37.321
13.9411 -69.6598 48.5342
14.0341 -5.04417 32.2593
14.045 -67.8618 46.1779
13.9062 -6.28624 52.48
13.9975 8.32032 52.2527
13.706 -66.6362 45.6973
13.9533 9.88341 47.4553
14.0262 -16.8555 45.3206
14.022 -13.9536 36.2641
14.0638 -24.6558 40.0238
13.9817 12.9551 48.1169
13.962 13.9724 50.8196
14.4973 -29.3022 36.1443
14.2626 22.3966 48.1345
14.0442 -12.9148 47.8627
14.1165 -8.13914 33.7287
14.1879 -4.89566 28.723
14.1144 17.9626 49.2519
14.1662 15.5644 46.9972
14.1702 -20.5775 39.6854
14.1647 -13.0641 33.5431
14.2341 4.7267 47.9243
14.2506 -1.17732 52.508
14.3764 31.4296 36.3549
14.2042 -11.511 32.9956
14.2183 6.08867 50.1257
14.1938 7.51267 32.6641
14.9556 25.3822 45.1844
14.571 -24.3817 29.7807
14.3354 -19.0455 37.8014
14.447 -8.23615 37.5128
14.4285 -15.2185 44.7905
14.5785 -1.07538 50.8506
14.9807 -27.1649 35.9517
14.6984 -13.3406 36.2152
14.609 -4.50669 41.4557
14.3009 10.7649 40.3293
14.3661 -22.6394 39.2289
14.2948 -22.242 28.0139
14.5201 -15.3625 37.5767
14.39 -17.4657 38.1082
14.6011 -10.7861 37.4729
14.7279 -0.870606 49.4621
14.7037 -27.8557 37.1071
14.845 -26.629 33.6228
14.526 19.9853 47.1419
14.3854 -5.8742 50.9148
14.6023 -10.2726 32.907
14.5931 -6.32032 29.301
14.44 16.7482 45.9335
14.3433 -17.4927 36.6991
14.6768 28.051 44.3619
14.6332 -13.0972 27.1247
14.5218 9.19369 36.1317
14.7658 -13.3553 44.108
15.0598 -25.9872 36.6775
14.9534 -13.8473 34.8224
14.8134 9.95178 32.6382
14.5961 -2.44528 44.3465
14.7933 -11.8508 32.2726
14.947 -3.87163 46.3238
14.8244 28.7097 34.1345
14.665 -18.2605 29.0452
14.7977 -11.4689 30.6726
14.7344 -5.32153 49.3903
14.8382 12.4311 40.6764
15.1114 28.4075 39.7852
14.9985 -11.3103 41.3094
14.9597 -12.1013 43.1126
14.9289 -19.8425 37.1672
14.8411 -17.3354 30.4197
14.9162 -22.3951 31.1387
14.9757 -8.14314 41.458
14.9909 -16.4914 36.1088
15.1795 -24.4806 34.1605
14.959 -5.55775 47.4415
15.2727 25.6042 43.6123
15.1776 12.3142 38.1106
15.3801 15.7741 41.8638
15.3272 18.2127 43.7556
15.3927 23.0319 44.3731
15.0809 -8.97523 43.215
15.2325 -22.257 35.4798
15.4364 20.6787 44.1791
15.197 -21.4581 33.1746
15.4959 24.8196 33.5934
15.4679 26.3951 39.5688
15.4645 26.3409 36.0422
15.4943 13.7979 34.9147
15.5216 14.4121 38.2448
15.8 16.7911 35.3889
15.7293 18.8787 33.7165
15.7525 24.1351 36.7094
15.8769 19.3329 40.4072
15.8037 22.0622 41.3168
15.7478 22.5515 34.2651
15.7895 16.6066 38.0005
15.9067 20.5615 36.3815
